ply
format ascii 1.0
comment PCL generated
element vertex 1541
property float x
property float y
property float z
element camera 0
property float view_px
property float view_py
property float view_pz
property float x_axisx
property float x_axisy
property float x_axisz
property float y_axisx
property float y_axisy
property float y_axisz
property float z_axisx
property float z_axisy
property float z_axisz
property float focal
property float scalex
property float scaley
property float centerx
property float centery
property int viewportx
property int viewporty
property float k1
property float k2
end_header
-6.6312242 -20.483328 2.7427053
3.1333723 -24.663054 0.38958651
6.8699908 -8.8800468 0.86600095
5.7922816 33.373402 11.88761
5.0150552 -48.245041 2.3822539
8.9566803 19.537258 5.6477451
4.646935 -32.12347 7.11833
-20.013725 8.7040596 4.0105786
-6.1533527 -16.421986 1.3047525
30.121222 2.6544445 4.2925129
17.841558 -7.205884 4.0306726
-1.2104261 -30.852777 1.5094483
4.0247965 -34.68063 1.2284297
1.4139484 -7.876843 4.8122182
3.3518026 -38.82716 5.0844331
4.5998468 0.16108969 1.9248025
-2.2498863 -20.246828 3.2150614
23.259565 -6.0058188 3.9479747
-2.0921304 31.67358 7.006217
31.165071 7.0967717 4.2058401
18.867971 -16.14884 1.6112351
31.348324 7.5463834 3.0050936
19.784496 -7.2335143 1.4412727
32.729958 1.7160516 3.7704163
-13.866385 7.580502 4.0841713
5.3592892 36.744473 13.514054
8.6732731 -40.921101 1.8551425
31.626152 0.96307057 3.8681846
-17.566502 9.9001322 3.3403475
-1.3216817 -10.921079 4.1089931
2.4114976 28.540604 7.1238632
15.306207 -3.8023477 4.161016
-0.046713676 -9.56322 4.22474
-20.423565 11.759675 3.9748468
15.020077 -20.347683 1.0305479
6.2998552 16.572582 6.3935733
9.4510851 -31.307537 1.0959017
-10.305639 -6.6964927 1.6655078
9.3301201 -23.360651 6.7390766
13.675935 -15.068118 0.71620649
-9.1476202 0.65170145 4.0940466
-17.180969 -4.2158937 3.5862067
8.5501328 -44.564564 2.6624229
22.010176 5.5408044 4.1382046
8.2982121 8.1988516 4.8429546
5.7997184 35.257175 15.475125
2.7505167 -26.972364 0.63175708
7.5435405 25.244539 5.7252417
25.484482 -5.8491497 2.3205202
-24.632 9.1235971 4.3495398
25.389795 -5.6265354 3.7776594
10.809057 -22.979467 0.44969517
-16.071859 10.362401 4.0715461
5.7028871 -7.5745063 0.94594282
8.7754946 -5.2731476 5.3144841
23.478933 6.586699 4.1156421
17.570614 -24.142138 2.3192251
21.58971 -1.3567045 2.0164001
-6.2435551 -22.081421 1.9532772
28.33766 3.9743037 4.1728325
-13.160485 0.29516578 4.0520906
19.445389 -4.2465281 1.6895275
27.248018 7.3316545 3.0189466
2.9439909 11.775076 4.9018931
4.5990591 -14.44966 7.3567204
22.516169 9.0606689 4.1858687
6.4885292 19.967196 6.5548038
-15.847957 -1.7738672 2.3233626
14.260417 -22.503029 2.8790543
-5.4130259 -10.864179 1.0847706
-0.60030007 -9.7472095 1.0871012
3.6666424 -35.07917 6.2557044
-16.073204 -6.5956421 3.3919039
0.63666862 3.4530761 4.415731
5.708694 -10.997437 7.7455029
2.0750606 18.476891 4.9353728
9.4860277 12.788785 4.5949717
-5.7248473 -7.1627436 4.0522842
-7.5306597 -16.391663 1.6397173
21.689604 -9.1554689 1.6674027
7.6467981 23.350733 5.3040919
8.8086004 -44.224152 2.460686
-14.084451 -8.4261103 3.4351685
3.6287134 1.9502969 2.4629619
12.229231 -5.9550796 4.2089562
-1.2150986 28.292435 6.8278022
-17.708788 3.0591691 2.4913783
8.7131567 -29.045929 0.82862926
6.8249931 16.881323 5.6105947
26.283495 2.5628088 4.024941
6.1964712 22.699505 8.0951939
-5.4454184 -1.0766131 2.0770943
-3.0109365 -12.206866 0.79965049
-3.0897858 -12.788732 4.0254397
8.8574886 22.050947 6.2297349
6.6657724 -39.50301 1.6116484
-20.714619 6.5349655 4.4442806
-23.237719 12.360037 4.0344024
0.4133296 -17.353043 5.2892241
12.66876 -9.5333405 1.1081387
5.6028461 31.502003 6.829421
15.651528 -26.714163 1.9524745
21.009256 3.527684 4.1307635
25.407206 9.5136509 4.1132841
-22.162687 10.47844 3.3594048
5.8763342 30.170362 12.059859
1.6169128 -2.4830391 4.5927963
2.5633943 11.951563 4.86447
32.426765 7.9344788 3.0443904
15.827917 -20.554241 1.2463824
2.0541034 5.1568246 3.8104742
28.413422 4.8559418 4.0583458
8.5016756 -34.76527 1.3322207
1.8208634 -11.428274 5.5388241
2.7074423 -14.23098 6.497169
6.779788 24.825138 5.3237071
4.9889393 -50.812992 2.6184044
-6.5522318 0.57995671 4.1650805
5.9370227 34.813789 14.079743
2.3023245 14.362099 4.4098806
3.4121292 -40.819408 4.535975
7.7658482 -21.935656 7.4189305
25.752802 6.7018914 4.0543218
4.1474018 -8.3642921 0.92193592
-8.3084478 -14.711909 1.6853595
11.32787 -0.95180583 4.3218522
35.271633 11.880436 3.5244687
19.847593 -12.302652 3.5376551
5.3999257 35.677929 14.289611
18.597958 2.3556802 4.1773691
6.8275404 -15.37427 7.3906965
5.6192017 11.830001 6.963294
3.5860727 15.940903 5.1114988
18.442303 -10.059366 3.9494019
11.684813 -30.402294 1.1468147
20.745783 -11.872395 3.4983022
13.601399 -18.625555 3.4113965
-0.69161862 -3.4119196 4.2582884
0.35480148 27.911097 6.9386435
5.090415 -20.686207 0.13301514
24.915102 -7.6905622 2.3632884
-2.7649405 32.885586 7.4398494
-10.772352 5.2586718 4.1296177
5.4584818 -30.549831 7.6581483
20.134075 -0.12628937 4.0910306
12.869649 -6.8669128 4.175118
-2.0568092 -31.34754 1.8982853
11.485235 -9.9710741 4.2096715
5.5818419 -54.237644 2.8812768
5.2277541 37.56078 13.599364
2.9586065 -19.508688 0.35859239
6.471025 11.753867 5.5651073
-8.4644232 -8.7265301 1.4469615
10.30231 -28.091488 5.2340097
11.292743 -3.7604425 4.27355
5.9526248 37.980568 15.673981
7.3621769 -47.180008 2.3289647
11.086762 -30.877554 3.7256813
-1.9113036 -6.6594872 1.442064
6.5315571 -43.205143 4.9589853
3.0607576 -40.672825 4.1632814
24.985943 1.7394304 3.9886124
3.837594 -35.466076 6.2260165
-1.5380225 1.9578081 4.3289223
-21.750776 2.5374568 3.8361182
-8.669158 -6.9058075 4.1664395
4.3827863 -14.528181 0.38304242
9.2844372 0.53797674 2.8743675
4.7805438 30.392357 8.8542547
6.6490326 22.86433 5.5532575
6.0580449 6.0199323 2.2584529
-15.05845 -4.5691071 3.7995796
-13.599421 -11.353802 3.0581348
-8.2298479 -0.079928331 4.1067743
7.716692 3.6702702 5.0544343
24.798536 -1.3547674 1.9979491
6.8947086 -15.621493 0.38032687
-11.188187 -2.1522784 1.9173495
7.010179 -20.848982 0.18703122
-11.837229 -5.7284365 3.9867854
5.7781491 36.249897 16.197241
-23.443588 14.146657 3.9326048
-8.3101072 -19.25873 2.2455959
11.034492 -31.439722 3.7372043
-15.882832 -5.0374866 2.706769
-0.45052576 -30.931427 1.266348
-4.8705282 -24.19022 1.7920524
3.9610782 -5.8041201 6.6767688
-7.9109988 3.3034215 4.175015
2.1097572 -19.819777 0.41610688
8.6193447 -0.28706309 2.6103206
-3.369699 -10.589082 4.0577712
-16.561224 -5.0404949 2.9196601
7.374424 -9.8014202 6.8516169
-4.8745661 2.5307357 2.5174797
27.244755 3.0568407 4.1182184
12.618027 -12.488672 0.76138639
2.9328508 15.139333 4.2971406
-12.309503 -3.1292036 1.9033598
8.7795897 0.77183712 3.0273426
8.7122993 19.679447 5.90378
0.50414562 -17.071886 0.49941951
4.3907294 8.7497931 2.8638432
-7.1139164 -5.3606892 1.5642989
-7.8649035 -21.169914 2.3668308
25.737165 -7.3229117 3.5387783
-10.626116 -7.4160748 1.7035472
-23.100796 4.5938005 3.8217857
2.7822821 -20.955618 0.31328294
-5.5358691 -2.036871 1.9638038
35.917816 12.281022 4.2706442
-15.776383 -7.7513161 3.116631
4.630908 -47.61927 2.357095
5.1028214 -11.165439 7.3760352
-13.530427 -11.14953 3.1095002
19.444315 -9.5175838 1.4008944
5.3700681 -13.011398 0.47604597
-10.979038 -1.3487947 4.0079355
19.008381 -13.316709 3.5009356
7.1058197 -43.311096 4.7781267
-18.784645 12.367072 4.0311546
20.807266 -16.904364 2.2905214
5.2591591 31.588179 11.522828
15.013996 -21.458252 1.1249216
9.5177555 -37.669098 1.5754871
32.762806 8.7209263 4.2447786
6.9843049 27.924528 5.9131145
11.048614 28.860027 7.0683866
5.5589442 33.708221 12.08883
17.647711 -20.301132 2.8002005
17.400755 -17.637264 3.1450715
29.942616 2.4201906 4.2824845
-0.72871751 -31.445889 2.1444533
19.075508 -17.072062 3.0432329
-11.176362 -6.3944612 3.9737823
0.72221899 -35.218491 1.5380598
-15.450213 3.6841867 2.5779219
33.914246 3.6441898 3.7705057
18.09498 -13.29476 3.5961256
-19.122072 8.9380302 3.9615943
5.8020687 6.5714588 6.9143138
-6.5298967 -12.464667 3.7157648
6.55335 28.119936 8.1759396
11.499626 1.7426705 4.3643451
10.136997 -35.838131 1.4751363
-5.7930913 -5.6083651 4.0776544
-18.954243 4.8467708 4.386734
28.981661 -4.0359535 3.2060549
5.5621214 -12.449373 7.8514132
19.470448 4.1783347 2.696516
0.92648453 2.592654 3.6522651
-13.017176 -9.8051882 2.4159355
-15.9717 7.7398481 4.0283246
11.930186 -32.14259 2.3098729
8.8107805 -21.321474 0.3167946
-20.271116 12.800395 3.9973524
1.4463625 5.1724706 4.27461
-11.988094 2.8386786 4.0532961
-0.78415489 -30.279018 1.285733
2.2097793 -13.040938 6.1119113
9.5531874 -3.3103034 1.8570516
21.018375 -12.850737 1.8536141
34.214161 5.8438511 4.1998854
22.851326 3.2852395 2.5541642
23.310593 0.2411793 4.0089927
5.6398993 -2.3542173 1.4063755
5.8548155 -27.819599 8.2183523
22.67601 6.3488536 2.9456105
-0.61305439 -8.3930578 1.2460463
0.0157347 -12.286379 0.76402658
4.9707632 35.130383 11.732278
10.600688 -28.411579 0.92737311
18.80517 -1.8692646 4.0974665
8.9665155 -2.4507439 4.8295717
-0.3907167 -32.074329 2.5751162
1.6616169 -14.873652 5.864665
24.047779 3.9197879 2.6217153
22.969898 7.8574748 4.1521192
4.9245052 31.502001 8.1241932
3.9628069 -37.176823 5.9193506
6.2540517 25.968994 6.2496119
0.13676171 -6.9879684 1.4154121
11.256139 -32.646339 1.3427207
13.940266 -11.026713 0.92536902
5.4320045 31.960779 12.533973
34.160511 3.8835611 3.8190544
3.5835547 -30.398367 7.1669474
-16.624063 2.0436687 2.3784413
7.3747363 13.206289 5.0680132
7.8806171 -21.127033 7.2760782
-0.8054145 -16.489206 0.53871232
-1.8768523 -13.483414 4.0649362
7.6097193 25.333544 6.7438636
-1.5089042 -21.365446 0.62136412
-8.0141468 -20.482306 2.3195553
-4.3138576 -21.406301 1.2841321
-16.451941 0.22352669 2.3950539
25.051682 -3.3909302 2.0664701
31.392328 0.21053921 3.2688541
-8.8638868 -12.804264 1.6568316
8.0955038 -24.143435 7.4256253
-1.1306497 4.9657297 4.3769088
22.420115 -0.29905328 4.0243192
5.8153024 -20.593014 8.9000292
3.4421866 -39.656475 1.7301346
-14.917637 -6.430469 2.5904398
27.453102 3.2788506 2.5266273
-2.3560848 37.068073 7.9376893
11.632297 -3.5413322 4.2679362
31.225622 10.757399 3.9730289
28.674231 -2.1895242 3.8575265
-3.1177897 1.3949772 4.275044
35.39703 11.918915 3.5280178
25.720459 -5.636271 3.7429843
12.895272 3.365047 4.3539338
4.1568661 -37.324268 1.4583577
12.496933 -13.286242 4.0728669
7.3749018 -36.801735 1.424328
4.573143 -34.363617 1.1540667
11.684697 -24.948418 3.539372
10.137003 -28.572758 0.90360302
5.8515105 0.91242152 1.7430025
0.56361037 -12.797795 4.8282127
2.0560029 -0.15217386 4.6878119
-0.77984947 31.228943 7.3440986
30.906441 -0.157498 3.8185687
-16.721205 8.9622803 4.0288949
-2.1215105 -23.859936 0.95857835
18.553455 0.43436038 4.1448975
15.15775 -16.10815 0.89209306
5.2482405 -28.949177 0.60472816
4.7933154 13.724183 3.2549186
25.168638 0.87806213 2.257998
7.9884896 15.35035 5.0686769
7.7249432 -3.179378 1.7160462
35.239918 7.0038443 4.1919017
-17.31204 6.1478348 3.9630589
-6.6732464 -13.266924 3.6049128
9.4379797 26.555361 6.1070976
9.7948675 -17.449875 6.1591191
1.1597865 1.0838028 2.9322445
-4.1597819 -3.3439236 4.162878
6.1520147 31.502001 8.7061157
-2.1830983 -5.0170465 4.1885829
5.1842532 20.402668 7.6208849
-23.904947 10.084218 4.4777665
1.4495672 -3.2434947 1.8627709
-24.632 9.2353573 3.5770133
5.0270433 35.949158 12.33521
11.046856 -33.366718 3.1763241
7.0976028 21.404039 6.2240181
5.0479364 -41.70303 1.7834369
6.7293644 31.502001 7.6429048
5.6117668 -33.013817 0.94493747
2.6279931 16.714504 5.0281
10.278292 -15.287868 0.48184994
24.299866 7.4446597 4.1078277
-10.533742 8.3144751 3.8312294
4.7979083 28.897848 8.29708
6.0133724 28.082836 10.45892
7.9429431 -23.30883 0.24200213
5.8105044 37.329769 16.513693
9.2445278 -16.81741 6.3582807
9.5201225 -32.29607 1.1917
5.5458441 -12.178076 7.8023996
13.841982 2.6966803 4.315835
21.578901 7.7596641 3.6237426
3.4041095 -4.8543711 1.4178082
11.262954 24.975599 6.090435
5.6548061 22.72201 9.6634436
-10.330581 -4.2578301 1.6750845
0.71430695 29.426218 6.588953
9.610239 -36.675995 3.8563781
14.262592 1.6277776 4.2853637
6.0879245 -37.618736 6.1974835
20.984093 -18.043989 2.6956131
6.4237223 4.4971328 6.119823
26.865152 8.0869226 3.1245656
4.6024303 -10.967999 7.1422033
0.82155669 -21.122751 5.6955891
0.9326123 -23.382456 0.45542377
4.6601057 -44.818947 4.5878062
-1.0469389 -11.549545 4.1056194
2.9066648 -34.852749 5.7918882
24.313316 -10.511355 2.5596933
-14.112875 3.7965131 4.0109167
-6.2548375 -5.0683188 1.6036328
26.72732 -5.847158 3.6156383
0.94841975 -23.997372 0.51014233
8.0574284 -38.250355 1.6129282
5.8182659 36.676151 16.092358
0.27199915 -32.182598 1.2253591
7.9795299 -42.463787 1.9903842
4.6065512 32.166901 8.5694818
4.9023991 -13.165755 7.4146466
5.0555696 -0.17035931 6.8487906
18.453602 -19.490841 2.8158305
6.5261111 30.507416 9.1800013
29.198469 8.5446377 3.9906721
2.8616138 -25.244501 0.46510494
-1.1695232 -27.324888 2.4746797
-0.40547231 35.472748 7.7165751
3.1543489 -0.64562583 5.1326184
27.935156 6.6094437 2.9149358
9.0338593 0.51808184 2.9245939
7.4965816 13.210892 5.0543303
2.6611948 13.463876 4.9252009
14.854887 -26.017899 2.3967905
6.6729846 -9.5640926 7.1268978
6.1552534 -41.338383 5.4362683
9.7650404 -13.459846 5.6391854
31.546173 6.8478479 4.3071284
-2.306644 -16.928295 0.71605319
31.145765 2.9715297 2.789818
4.9563818 6.6236672 6.1274505
13.95346 -12.662567 0.74914783
9.0341663 6.7505355 3.7337146
-9.8373442 -2.153281 1.9250948
5.3606148 -35.391262 1.1823936
-3.7107747 35.09045 7.6336842
16.78668 3.9625621 2.8262556
5.4831548 37.918053 16.209494
31.348095 10.93605 3.4480598
-0.44963884 -0.35682356 4.3186293
-11.973068 0.47269273 2.2210333
-1.2306991 32.262997 7.4658308
-14.821 -5.2377529 3.7433567
6.517621 10.806786 2.8404531
7.0068245 -9.1837091 0.84336728
0.87680441 -30.762136 1.1324686
13.719768 -18.486805 3.4160621
4.0520835 -5.0635386 6.6467395
2.4630947 -15.155172 6.4329705
-1.8299648 -7.1841464 4.160398
4.0711236 -48.248436 2.4494786
20.270683 -6.7515154 4.1613021
8.6469126 -40.322922 3.8678224
11.8426 -2.434186 4.2815042
3.5762184 -18.976055 0.32943234
3.9335048 15.393954 4.0143933
8.9807358 0.9389109 4.7626328
-16.271498 9.5179768 4.0511703
19.426439 -8.2493734 4.0670033
6.0017133 -32.113197 0.88323468
12.454932 34.824333 7.4607167
-0.30154771 32.953835 7.6058021
5.715898 -40.898911 5.6462579
2.4099429 6.2034903 4.7185817
2.8234904 -10.630424 6.3302994
5.3091483 -47.012516 4.3304462
0.55799907 29.294905 7.1399922
9.7515869 -0.33952793 2.3101187
6.1579552 24.772408 8.6821451
10.288856 -20.096239 6.0675626
28.548021 2.1224627 4.3880501
5.613471 37.145084 16.883448
-12.671275 4.9962211 2.7481713
6.3843579 -38.078316 6.0233045
23.628965 3.1229477 2.5305796
19.530462 0.40767142 4.1172137
-3.9857299 1.9962729 4.2614174
5.265336 -34.972176 6.721673
17.107025 -2.4270084 1.9168069
5.138628 21.708372 7.7685256
26.241936 3.7099688 3.9882007
13.674588 2.5432127 4.3178048
4.8804045 -16.755861 0.3132309
-11.038559 -12.809594 2.1903107
6.8702664 -9.18186 7.0325522
-9.0316572 -3.4552648 4.0252209
3.7254875 -6.8818598 1.065132
-23.55456 12.782766 3.6492836
10.189143 -8.2307386 1.2755384
7.2010589 22.892149 6.4251971
-3.2557287 3.2960789 3.0051665
1.4652227 7.2784567 4.4406247
-16.051064 10.790532 4.0796366
16.064634 -15.428305 0.99973738
6.5477643 -21.02862 8.3349543
23.024799 -5.8292871 3.9929595
11.906959 -0.065159507 4.3212781
4.9097519 7.0601397 6.0656304
3.8678303 9.4163427 3.2804601
3.7503369 -19.438814 0.29582372
33.08812 4.4574666 3.2162814
0.46827528 -16.286119 5.1950822
11.009995 3.9509182 4.4167299
21.873655 -11.022319 3.4860828
12.451769 4.0431786 3.9137335
4.9834871 4.8826761 2.2450023
23.377705 -2.4700239 1.8752542
0.35377058 -5.3979287 4.3020115
14.684425 -1.2124473 4.2237787
6.8137259 -29.835098 7.5493493
16.305653 -3.0284972 1.8508383
1.1661555 -29.262007 5.2452888
-5.0130491 -24.576038 2.4152675
5.0627398 17.602283 6.6071653
11.920007 -2.057847 4.2859507
-8.5165529 -2.7805228 1.8591254
7.5794973 30.468174 6.6879125
-14.947655 -4.0835562 2.3013012
9.8984489 -29.115126 5.7180696
24.838427 6.8304381 4.0820484
11.442212 -27.447411 0.8460992
11.904757 0.35485715 2.281985
2.9302113 10.982437 3.7666206
6.5031352 -24.137522 8.7730389
-7.3143082 -11.032227 1.3104465
-12.482285 -9.1241102 3.5137074
-0.64969128 0.77468991 4.3329091
2.4584808 -39.761047 3.7301116
6.2840438 11.618448 2.8233495
21.49852 -8.6780081 3.8055739
6.7488279 -25.695604 8.3936968
5.550878 -20.084789 0.11973754
1.7342855 -31.157505 1.0973775
-0.4275198 -18.928236 4.0965419
6.5775771 19.52845 6.1735153
17.302845 -2.147682 1.9484687
-6.3523273 -17.386538 1.4367819
29.474373 -3.7553291 3.3312175
16.735779 -4.6383238 1.659291
7.7377763 -5.9622989 6.3734918
2.3033066 23.274364 6.389308
-6.3568344 -13.659492 3.5898395
2.9583521 30.606527 7.4360681
10.684653 25.33687 6.5964017
9.0222464 -10.266891 0.80845898
-4.7379379 -10.982411 4.075316
-14.136592 7.8525434 3.1104929
9.8936815 7.0584602 4.4143071
5.5110435 31.689377 13.0503
6.4681349 13.462238 5.2516341
-7.1885257 -16.084129 1.529313
11.395267 -14.130481 4.5800595
-2.6530933 0.048674889 2.2254918
-2.0427032 3.5285833 3.4174485
-18.504763 -0.66566998 3.9190469
5.8376527 -15.361234 0.31709388
6.0213375 -10.79491 0.67192274
3.2205715 9.1412935 4.8621325
31.21958 6.0533366 4.3660402
-3.1745141 -19.75173 3.180815
9.2715502 3.9717147 3.676321
-16.845665 2.3741002 2.4159544
11.08181 -24.207764 4.5277605
20.690302 -0.56255442 4.0678816
3.7237678 -0.080953971 5.5081649
11.211255 -8.7958946 4.270247
-17.390156 -3.4534452 2.9394851
-7.2013984 -5.5720339 4.0390639
22.460167 2.2088268 2.430037
6.0976992 -0.80031097 1.6559665
11.818183 -30.194983 2.7102726
2.0788078 -27.740278 6.7954879
12.817621 36.32233 7.8887801
-2.8818674 -19.722809 0.78433037
-6.1135707 3.4461191 4.2275853
1.2795054 -15.03284 5.6076474
11.512397 29.970116 6.6938143
23.541868 -13.863644 2.7755089
4.8176517 15.759767 5.4683452
-3.3782861 0.34849703 2.256479
2.1861796 -26.550419 7.021965
-1.3971503 35.839092 7.6145763
5.6920695 22.971643 10.181356
11.166862 -24.452679 4.3714652
5.1191988 -20.522299 8.5229721
8.677557 -7.1155667 1.1276625
-1.7695749 -22.397835 3.0054624
17.813509 -3.9145215 1.7380146
-13.675061 -9.9321985 2.7219512
7.1263437 1.5429243 5.7593961
-18.82654 -2.7171552 3.5081856
6.4970274 -48.319016 3.9462109
10.797416 -21.44775 0.47632739
-7.8920388 -6.3285322 1.4461147
20.934088 -0.34437001 4.064919
-0.062185466 28.189747 6.9573627
18.824625 -16.358942 3.154278
12.647991 -5.2345252 4.2099342
6.1373425 24.094288 8.5956688
10.001322 -10.656212 5.124887
3.5485013 -5.4076543 1.2550735
5.0238066 -14.357721 0.36788401
-19.777559 11.592314 3.5381885
33.997013 11.529284 3.4937277
24.686464 -9.3655605 3.399987
8.5454855 0.18585761 2.7988467
5.765883 -44.566494 1.9983863
9.8185349 -4.6542854 4.5865645
-3.4642694 -14.19323 0.8534596
28.827229 -0.4449403 2.5542448
14.57029 -22.590342 1.1138898
-9.0509138 4.547791 2.7338228
5.7259331 8.3236675 7.0059853
26.536724 -8.463706 3.2467575
-5.896594 -18.770655 1.4445571
4.2371726 -8.2430553 6.8914642
22.275551 -11.505838 3.3873036
8.7978315 -18.531078 6.668808
16.19319 -19.826439 1.2730874
2.4803154 11.18393 4.0021315
12.247228 3.2000055 3.5292265
3.8174036 -12.2071 6.8707433
11.683009 32.110371 7.0371532
-3.6260536 -1.970437 1.9827222
9.9052343 8.3171158 4.6203175
16.827673 -12.146792 3.8623767
-6.7058659 -9.3319645 4.0740738
23.500362 9.5829916 4.1676178
7.6818004 20.526659 6.0746517
1.0743077 2.7265725 3.7568312
14.727479 -28.285498 1.8654734
0.56079173 -34.019466 3.2584102
4.7415442 6.7153201 5.8498425
15.704079 -0.93994093 2.0996013
-0.46492529 -33.434971 2.2192054
-3.8906169 -18.780354 0.94538373
5.2729526 -41.523258 1.7483945
-4.3480363 -26.611319 2.2382793
18.440842 -1.2855842 4.1178565
8.7072668 -16.07967 6.5481749
-13.642342 -0.29196647 2.1215219
-5.0529947 -12.419487 3.8708434
4.8888507 -35.850014 1.26332
-0.60457218 -30.69523 2.4196935
2.8905418 -18.392164 6.8109641
5.7182293 1.9077966 1.7962493
16.522818 -6.9140697 4.0725279
-7.8495836 -0.32300565 4.1131015
3.1081531 -6.147316 5.8834271
10.142726 -33.817924 4.1122694
7.7222109 -41.448509 4.6182942
5.4646254 -47.976337 4.1812949
-6.8783002 -10.002626 3.9760749
4.9944582 -26.977938 8.242095
3.1831348 -15.171995 0.41903749
13.387909 -9.36726 4.1168103
10.90094 -37.113235 2.1835783
3.6544423 -44.507111 3.6763101
19.269127 -10.692337 3.7896192
10.483075 23.344606 6.303762
6.5331888 22.847181 7.0583253
-0.40160659 -27.478872 0.84941059
-6.2845941 -24.054161 2.317735
32.101753 8.3127089 3.0906982
-16.692816 2.8176358 2.4689288
-9.3920164 -2.2151029 4.036942
12.192577 32.765991 7.1522036
3.9876246 26.961437 6.9802656
28.798878 10.94695 3.5216358
9.7508516 -31.892334 1.1740481
4.7990122 -36.531116 6.2807989
-2.5220389 -25.607018 1.207557
10.628043 23.678734 6.3418527
4.2005429 31.57942 7.6300254
2.3848631 -14.038493 0.47517437
3.0287519 31.551376 7.5702891
1.3514655 -38.073658 2.9374983
-4.5844054 -21.032475 1.3181754
5.1140099 -23.505665 8.905652
8.2989206 -15.502803 6.7029085
5.0424089 31.130674 10.350146
2.5633564 19.054001 5.3224025
4.4313107 -19.68606 0.22910547
-19.412647 6.2121387 4.2678723
-22.530605 9.9114256 4.2672663
-7.0505099 -22.528812 2.2864835
8.6898088 13.860993 4.9401927
3.1414478 -1.2368941 2.2163415
6.9114294 -16.765882 7.4732585
7.9666438 -9.3336506 6.5940175
6.9783378 -21.862986 8.0778112
4.0133467 -3.1932638 6.3034983
-4.707727 -1.9735414 1.9760612
17.539742 -19.322021 1.5595901
5.1785212 -11.315261 0.63114792
-16.91111 6.865201 3.9868126
-18.505781 4.6479239 4.3386431
-12.222565 -4.1635113 1.8930405
5.5365334 34.070942 12.271198
15.219872 -25.47571 1.6329924
-15.609818 -3.6003668 3.8600249
18.529598 -3.6865506 4.0732565
20.061306 -19.987764 2.4768524
2.5254192 9.668849 3.8380191
5.8291111 -52.685501 2.743412
7.661253 19.242983 5.8978367
10.140749 33.082558 7.1496773
7.0782628 24.601049 6.6677408
3.6693206 -19.373135 0.30526343
-19.685925 5.9955502 2.8246915
10.059323 -26.290751 0.68923044
-1.2424912 0.084120192 2.2378654
5.0014801 27.340315 8.5948963
4.0359912 -6.1239471 1.1225539
21.500429 1.5743041 2.3611112
-6.130074 -1.005047 4.1490316
16.717276 -7.8202481 4.0512114
14.740951 3.8523407 3.263166
33.7183 12.355164 3.6074522
3.3359692 -8.8724089 0.9015401
6.1473699 21.84479 8.0596704
-4.6985917 3.0542452 2.5642757
-1.5415282 4.509325 4.37359
-20.508722 10.103265 3.943414
-8.0197735 -16.866951 1.8006276
5.5159154 -42.985115 5.1918731
25.787966 -0.77640247 2.1538649
19.434219 -19.279598 2.7418282
1.0229087 -32.489986 1.2362077
8.5315428 -26.024513 7.2996511
-18.319633 9.7197638 3.9976611
9.9907818 4.1334105 4.5046172
6.4387555 -5.4844675 1.1520622
7.4939704 -26.852243 0.52763247
6.0478373 18.697464 7.9070754
25.434792 6.2728686 2.9005885
28.269829 10.275763 3.3900368
4.1835694 -3.335032 6.4960814
2.8692169 4.3103008 3.1172588
22.35956 8.652009 3.8945353
20.871622 7.2357121 3.5248013
9.0295286 -29.882994 6.662734
9.123971 -21.131948 0.35061958
0.85236752 2.3670268 3.5182974
6.7091532 -1.9044511 6.7364588
8.7410774 -38.813812 1.7209678
6.1551905 -28.928068 0.60574317
1.0644654 -25.766579 5.5081387
21.93701 -3.8549461 1.7210075
7.9989691 17.787617 5.6774845
7.1417589 -7.8090363 6.8708005
1.7907058 -7.7179313 5.0564299
10.964962 30.143484 7.2501383
11.430191 -16.032106 4.792098
13.936282 -13.977888 0.74710882
2.2619061 -43.463974 2.2910097
4.6328731 21.78253 5.2454548
-7.0953426 -8.8943319 4.0871544
9.3630981 -6.34513 5.0359931
18.854248 -6.8238888 4.1091304
2.4520338 -12.965565 6.3408432
-7.947474 0.99803549 2.3061578
5.2083478 -51.092365 3.4760394
2.4747076 -21.625505 6.8298821
6.6463227 -17.549721 7.7999377
-2.5988784 2.7608936 4.3134627
-11.272578 1.241436 4.0452037
4.5722075 -1.8806148 6.6461167
14.66715 -2.6935496 4.1982727
7.3847365 30.165493 6.6356707
-19.29768 4.8899617 4.4393349
4.5874157 -5.7740774 6.9403572
5.6701813 13.884959 7.0213618
30.105381 5.3845344 2.7584608
5.991559 27.901171 10.479853
-14.549538 10.40703 3.9389932
27.266626 9.0336189 3.2458117
7.0304184 9.9082298 3.0476696
4.4532771 -14.085054 7.2633686
23.283432 -8.6260834 3.630944
30.877958 11.577133 3.5395687
25.456045 9.3924494 3.5283656
20.557373 -18.896589 2.488553
7.5228658 4.215344 2.620131
6.1604486 26.224909 9.0034218
33.794716 6.3883915 4.3686094
4.1761904 -20.808554 7.7598419
26.599712 -1.9432561 4.0973058
35.366467 14.325298 3.8046064
19.819855 -1.1476499 2.0512519
-24.302231 9.2109537 3.3166234
0.72615504 -16.184273 0.49275821
5.7219543 32.793396 11.885837
4.634376 -27.47842 0.52162808
2.0810306 -1.5534259 2.064913
1.0294729 -2.4459801 1.9539784
6.7833233 17.285238 3.8485816
1.016346 -22.138706 5.8671064
5.644712 34.364464 13.480233
5.8176188 38.273891 16.968292
-3.0477974 -10.333506 4.0712218
16.133467 -1.908674 4.1711979
25.353251 8.5507793 3.1924608
0.86242324 -23.46508 5.4785228
3.4626322 19.804245 5.9639382
6.9937296 -49.337982 2.5186625
7.1580911 -25.394306 0.36693278
19.161507 -6.3196211 4.08887
19.569775 -12.993827 3.4828176
7.2217989 11.735277 5.0403314
-12.159653 -8.2634573 2.0463331
22.704626 -4.4583931 1.7878826
5.7237215 27.759542 12.028833
25.91114 1.1249876 4.1690226
6.1008229 1.8045616 1.8910455
11.535028 -34.759422 2.1615083
-3.056412 -9.903039 1.054505
19.387041 5.6539159 4.2132592
-18.850878 -2.890795 3.4580705
2.0677691 -15.724705 6.2942157
7.2418194 -22.307894 0.1458132
18.547878 -3.7694306 4.0712934
-13.117677 0.12338652 2.1733513
-15.64144 7.5950103 4.0349822
-0.51724255 -30.784086 2.5392396
-0.51170552 -32.558659 1.5193181
3.1316366 7.8748083 3.3351021
-20.522928 10.424476 3.3729353
9.6603251 -1.6516944 4.6108937
19.015345 6.4789653 3.5833235
13.187559 -28.205805 1.3390393
-20.527344 5.6811323 2.837199
19.929462 -14.332876 1.7146561
21.00399 -7.019196 4.0548563
5.598186 16.836926 7.8152456
8.0113249 0.088939942 2.3844573
-1.4186121 -18.914509 0.61064678
-14.698175 -9.9029121 3.0600863
-12.083344 -14.290101 2.8499398
26.981607 5.2185836 3.9940662
-14.580001 -3.2239606 4.0095711
10.217283 4.5923629 4.4626861
15.30232 -3.4975348 1.8015993
-12.741062 -9.083931 3.4923098
6.813961 -41.938328 1.8458384
4.0441723 -21.978968 0.16623905
-4.5395651 -2.0386307 1.9693966
-8.0924816 -5.5043659 4.0222263
7.6279469 -17.203871 0.38924986
20.120522 -8.542573 1.4811578
15.521034 -8.9487247 1.1601876
-2.1345148 -24.781149 2.6823213
-0.32877976 -16.235317 0.52441114
11.205867 -27.68716 3.9266272
13.292733 -1.4108226 4.2590652
6.7838368 -45.421776 4.4463539
10.324173 22.791458 5.9804211
9.5148106 -36.949135 3.8849506
7.4044213 -14.01971 7.0273113
11.237839 -20.454136 0.5106408
14.058207 34.385086 7.6824946
26.899721 -5.8511767 2.690949
-5.2303948 -6.0851493 4.0849628
-16.308981 -2.1367867 2.4430647
14.815696 -0.76336628 2.1255078
4.1893258 15.503269 3.8670499
-18.307383 -0.60191685 2.8937039
7.9558473 -38.671894 5.2046251
21.329338 1.0439093 2.2998221
22.255606 -7.224257 3.9034088
0.014373409 -18.874718 4.7618637
-10.588112 -6.7000513 1.6990364
-13.842562 4.0521021 4.0229301
-2.3368649 33.572521 7.3128605
-9.7445374 -12.182103 3.4239531
5.8888221 -43.535202 1.9146136
-8.1018515 -15.81485 1.7299278
7.4632964 -30.338678 0.84276307
-11.70931 -13.345357 3.0851927
-3.4551499 -10.704814 0.95803064
22.435928 -2.4816742 1.8793682
6.5748582 -34.205597 1.1214226
25.442936 -3.7724454 3.9948931
8.937726 -38.841621 3.9827893
11.247581 -34.826515 2.4828441
31.509163 10.19267 3.3468308
-10.446025 -0.89110518 2.0697703
-16.701405 0.56603009 2.424664
-0.18747763 -23.475271 0.5567764
35.90815 10.73015 3.3561165
3.2782013 -41.620968 4.1269612
10.280795 -0.34795731 2.1783652
29.894331 0.71153706 2.7331147
8.0767651 7.0877757 3.2071795
2.2712681 -31.101789 6.2032566
5.723577 34.754494 13.87641
5.0760722 -17.762779 8.1283331
9.5547295 22.219915 5.4215951
5.2458863 36.550335 13.578588
-0.097983755 -33.567039 2.6149559
-17.644569 -0.78353012 2.6842082
0.57363164 23.776453 5.6953864
9.7503214 -22.347424 6.4726143
-19.166286 10.826955 3.9935033
2.096118 10.098045 4.2016935
28.034166 -2.1298678 3.9295466
12.391088 -11.754921 0.8488726
1.6493765 -6.1830144 1.5187434
12.125021 2.3046174 4.3567839
-14.076611 10.121223 4.1228919
5.025074 19.628115 4.2765751
-10.659023 1.146463 2.3078039
9.1211691 -42.531933 2.1575689
6.6629925 -37.4776 6.0657248
-9.5772638 -3.0718627 4.0167503
10.847906 -30.525028 4.1259551
-4.6989636 6.1754403 4.1384058
-18.647688 6.4972429 2.8896494
0.89691263 -2.7660949 1.9156153
1.8661504 14.030314 4.7136111
12.931372 -10.36942 4.1119437
7.4589329 30.23498 7.4299216
23.14315 -2.0155666 1.9299868
7.951251 -9.2296963 0.86765498
12.360708 -21.694231 3.1686625
-7.1447396 5.0727191 2.9809787
9.4533377 -13.088054 5.8264561
-18.655313 -0.8709048 3.876811
-22.836557 9.8262711 3.2630842
6.7152343 11.826668 5.1626487
8.4771509 1.0035086 4.883574
5.5594473 30.179516 6.1398697
-3.3356781 -1.9065456 4.211051
11.549376 4.0139112 4.4028101
14.522248 35.618298 7.8301024
0.8515479 -25.669952 5.2001605
24.110769 1.2567385 2.3086243
21.412266 -12.385043 3.3692148
-14.748372 7.1631355 4.0522814
-9.4467354 -14.415363 1.9387594
8.8521709 -9.7333584 5.8784013
22.941231 3.8929307 4.0833554
2.7086337 -38.883381 1.7205299
1.9078622 -12.643576 5.7508626
16.612583 -14.659412 1.064777
30.048092 5.2851577 2.7471244
2.2292852 -22.583851 6.7776494
12.440127 31.946943 7.0275693
-9.8792038 -2.0878677 1.9325328
2.1612988 18.014069 5.0177546
-14.810059 1.2456881 2.2952929
9.8305092 30.152071 7.3053999
27.949814 1.45582 2.4026961
28.016048 6.52665 2.9047425
14.580711 -4.7317739 1.6608618
-8.9747343 -14.097419 1.7956256
-8.5746813 -0.23452577 4.0944562
5.721107 32.406044 11.497089
8.6483774 17.566143 5.0664568
-9.3856735 -2.9251633 4.0246606
19.559809 -1.1870534 2.0481384
28.617079 0.13283634 4.1421609
2.0715013 -40.590633 3.0110972
9.6955738 23.003736 6.3217545
5.4594574 -12.031221 0.55967408
-16.0944 7.4082966 4.0190897
4.0255656 29.382221 7.3173633
0.68735981 -15.410853 5.2397676
22.974096 8.4775486 3.6564803
13.058639 -25.05134 2.6948574
1.5717379 5.9997554 4.2499928
9.9334574 4.6694274 4.2399011
8.5255442 27.32596 6.9761701
-11.265738 4.5818872 2.7100322
5.403378 14.778188 3.0205781
-14.643528 1.4002013 2.3144069
-1.4479514 -16.033583 3.8022006
15.43787 -25.465822 1.7045246
0.62887657 -0.81780791 2.1428444
7.0863771 1.5827603 5.7926974
14.678484 -6.2891684 1.4774063
5.3949146 -19.678749 8.6475058
6.3614693 22.026777 7.4201269
12.661295 -12.985051 0.70284438
6.0274029 -7.7246213 7.31916
6.2902331 -20.632774 0.13627742
9.2653446 -36.352646 1.5401934
27.600407 -6.2891312 3.4134371
-7.8564911 -10.398305 1.3748019
4.7527022 30.146015 8.6236506
-0.38774267 -14.088299 4.3221011
-0.26414937 -22.166109 0.51580167
-19.291491 4.2899971 2.709506
21.200918 -16.201817 2.9323552
28.885227 11.274138 4.0472894
12.148369 -13.132226 0.68854707
-16.440264 9.4976435 3.3008807
-2.8226464 -5.1350732 1.6157726
3.545604 6.7324238 3.1129327
8.8123293 15.600295 4.4207573
5.5355759 -11.652574 7.725503
-0.018752558 -26.236315 0.79436183
10.362546 -29.362621 0.99427885
0.95695305 1.0579654 4.4175525
5.0919299 -9.2693291 7.2765684
6.7246757 24.986549 6.9293065
-4.2445636 -18.13245 3.2668123
1.1833017 -11.456396 5.0956259
-8.6227779 -7.8151803 4.0619521
-11.529736 -13.211717 2.4678593
17.416006 -23.292953 2.4644542
-1.870012 1.4869213 2.4086726
22.094891 -1.2826031 4.0161214
5.6310296 -25.237818 0.23481221
6.0258436 24.363039 9.0102015
-22.797674 5.7392397 4.1913004
10.324056 27.497139 6.2756934
21.667791 -2.8132987 4.0113564
-10.45802 -4.6543007 1.6726533
1.02101 -16.834682 5.6505408
2.8147566 -25.320791 0.4759424
-11.814376 -6.4362941 3.9041095
-14.294533 -5.7131848 3.7396185
-12.443959 -9.9872627 2.2911553
7.9896579 16.395256 5.1028266
8.5179157 -9.7059937 0.84271699
4.468677 -48.357231 3.4469867
-11.344276 0.42356902 2.2189248
0.50106812 -11.433471 0.81131101
-7.4493303 6.4614615 4.2432809
-14.292269 -5.2530293 3.7950988
24.315239 9.0558033 4.1356683
-12.729226 -2.6293354 1.9531797
2.343497 -12.530775 0.60917866
-2.4870787 2.7983017 2.9345057
4.9473901 34.537914 11.374257
-5.855885 0.51249713 2.2613158
3.27858 -31.368668 6.8884463
9.090332 22.14584 5.3998089
5.1630077 30.241329 10.514919
6.1384244 37.604652 13.954527
0.41580221 -2.6024618 1.9320304
-2.4872117 -15.633348 0.73748606
4.1762538 23.741587 5.290544
-11.321851 -2.9733663 1.8201501
2.9852529 13.549156 4.9647942
-5.2528787 -14.654266 3.5822616
-24.44087 11.295161 3.4395924
4.6012845 -23.037378 8.4097757
22.834797 -8.9725714 1.9225378
10.993165 0.073733434 2.223429
3.5169652 21.316031 5.0198741
-0.94020891 -17.938654 0.55386186
23.047844 -6.0964761 1.8286215
2.5414276 -42.667702 2.0881085
10.195312 0.71924084 2.7478478
4.6741343 -18.405642 0.26200271
6.3858185 22.962299 7.5524149
2.7367406 28.57597 7.1442637
1.8499296 -20.207047 6.4394236
0.64853305 34.604996 7.8797798
-7.7780457 -21.487192 2.4642131
24.519066 -12.520706 2.9125783
6.4751697 34.898697 11.281997
8.2441416 -4.6131115 5.6495113
6.6690912 29.32452 8.0781174
15.283252 38.286369 8.0322752
7.3659387 23.830751 6.547339
-5.1961322 3.139312 4.247757
-10.666407 -7.7643423 1.7083297
30.838566 9.833786 3.3074217
7.9535489 -6.6528335 6.271174
1.7219863 -30.381428 5.7735825
-19.127094 2.5331659 4.2400665
1.8993763 26.128962 6.0400906
7.392519 -46.933033 3.3032234
0.25312272 28.366056 6.9968114
-7.6190009 -1.3201833 2.0358391
2.701592 -38.511658 1.6872436
16.132456 3.2155838 4.2611361
-15.169948 -7.8329511 3.3600702
5.5791655 -14.334661 0.35325125
17.803177 0.21357566 4.1619234
24.388611 7.8143692 4.1118426
12.596439 -1.72746 2.0252116
-7.2545934 1.1544726 2.3285618
10.208158 -24.383192 0.52776271
-22.529194 5.6903381 4.2392516
1.8883799 5.8713322 3.9978702
-5.0795484 -8.816143 1.1703635
-7.6408997 2.5949366 4.1701083
2.9213498 -37.912861 4.8566155
-0.87503129 -20.604895 0.54612547
-16.356861 2.2524762 4.3167772
0.94183469 -36.284863 3.0067415
10.992225 -32.881683 1.2973349
27.648636 11.337074 4.0238605
9.9063492 -7.9991598 4.8609781
-4.6026053 -2.0511518 1.9675593
3.6707239 -2.0140295 5.7702518
22.241167 0.15458034 4.0372634
-18.260212 -1.5297714 2.9866869
4.1861095 -14.445347 7.1609273
9.8813105 -31.369909 5.1856842
29.743753 7.3264098 3.9541078
-2.995229 -14.09108 3.8786497
15.500662 -5.9443712 1.5131103
12.155283 -22.820694 3.092768
10.171556 -1.8409745 4.4886827
4.8284855 -13.720747 0.42983377
-14.026435 6.9053764 2.9855011
4.4232168 -26.73328 8.1320648
3.3232286 -13.029146 6.7014427
10.066813 29.682896 6.6170115
-9.9758968 -16.544184 2.8767591
-14.225436 -5.9203677 3.7217443
-5.1452956 -18.810463 1.2638476
-0.99070108 2.6527293 3.2206285
32.264214 11.558257 3.9581494
9.4551783 6.2128592 4.6023746
12.569115 -14.341352 0.58483064
-10.189264 -4.5682859 4.2461557
7.542634 -28.050955 7.7027717
3.2197194 -40.691891 4.3466015
14.157115 -13.337535 3.9900124
14.27868 -22.406612 2.8887806
4.8550062 1.3151933 6.4070921
-20.49456 7.3850236 4.2836738
-6.4280114 -0.74093628 4.1453662
-11.538098 9.3261957 4.1094489
21.112532 -12.618256 3.3715849
2.6239188 -42.954124 2.1054451
2.442239 -32.857628 5.8601336
13.566881 2.5180531 2.8598955
5.6334701 -3.4189749 7.2755466
6.3782301 -0.14748263 6.779665
22.769934 -6.4406214 3.9453826
3.3940504 -35.189129 1.3270743
-15.391861 10.771202 4.0976596
5.8216763 -23.835096 0.1140254
13.299627 -5.2396326 1.6086807
5.4575386 -17.171173 8.3753004
29.138762 1.1814015 4.2151985
2.4038057 -8.6960201 5.6075802
24.360704 -7.4839659 2.2085819
6.2460794 1.5147407 6.6404052
4.4143643 30.187288 6.3262258
6.3247595 25.806408 8.383831
16.323513 -2.0692487 1.9633797
13.457388 -4.3817186 1.708508
8.0304098 -4.9122119 5.9110427
35.893211 11.842793 3.5112331
4.8257036 22.178867 6.8796096
11.563798 -13.820952 0.57176179
5.9509063 28.288502 10.82835
5.7370687 30.265877 13.282193
3.0247893 -21.310415 0.27847442
7.1166973 -45.217369 2.1697233
20.712402 0.68317282 2.2610517
4.5229745 31.22851 8.049016
-1.0246679 30.972164 6.8718495
6.5352354 27.513344 8.097558
14.617288 -5.3154082 4.1536584
5.0701871 -37.644501 6.1339693
17.00494 3.513238 2.6389613
-15.092426 -1.0304922 4.221014
2.705653 -2.294847 1.9814832
5.7713394 15.592253 7.3594689
-20.111841 3.0687656 4.2045913
-15.272871 9.4320011 3.2628515
-3.2606165 -27.744652 2.2123895
7.1224046 -33.073479 6.8170791
8.9731722 28.723614 6.4411554
8.3175707 -41.762985 1.9545647
19.999105 8.0652542 4.2385187
-10.046268 2.8966353 4.1084013
-5.9335189 -17.563507 3.1639833
-9.0677509 -10.57972 3.6849279
-17.714128 6.6521745 2.9132774
27.227585 10.485374 4.0796251
16.781456 -16.567232 3.3363028
8.8737001 7.3337698 3.6615462
13.490618 4.725234 4.3612156
9.1260929 31.261669 6.8472414
13.676392 30.873259 6.8838787
9.7133789 -35.307388 1.4580088
13.110935 -16.034586 0.64914286
-8.3827906 -1.1891521 2.0467803
-6.9403501 -11.651087 1.266059
24.831785 6.2336545 2.9029839
-3.2597799 -7.7649717 1.3043965
5.6562505 35.0145 16.082138
-16.355173 1.6962934 2.3392141
32.063026 12.362128 3.9778585
5.917634 -18.028364 8.4804316
5.3951569 34.22438 13.457604
11.836461 -8.8801699 4.1685739
14.808575 -14.23945 3.8157082
6.0788054 33.588589 12.511175
2.8803911 3.0426745 4.8716416
-18.063683 10.401856 3.4010091
25.001642 8.6123743 3.2366183
7.9253139 -4.4563227 5.9413991
25.252502 6.3970451 2.9194667
-9.17624 4.7018447 4.1643071
28.01967 8.3415661 4.0199461
-5.8800802 -3.7608004 4.107646
20.508949 -2.3394303 1.9072888
5.1936507 -44.053379 4.8890085
10.44183 -31.269699 4.5495496
-0.10745532 -27.462049 3.5491366
24.009787 6.2107363 2.9103181
13.01197 -18.573023 0.63739598
-5.0104537 -9.1383829 1.1329249
-0.18538016 -18.154963 4.550436
-13.660429 3.2217345 2.534034
5.4253345 -42.228031 5.3178043
-3.4044795 -14.189121 0.84636277
-10.258758 7.6523843 4.1859207
24.718554 -2.5490675 2.0269291
9.090517 -0.40324411 4.7423534
2.510381 -7.1755953 5.4932327
4.1445589 -18.791121 7.471242
2.9515302 -24.484264 0.38837695
4.8523779 30.535397 9.2392387
-14.793726 8.6782122 3.2123573
9.895401 -37.98642 1.7198203
4.8271184 -43.131165 4.971158
2.5369344 14.759671 4.3165975
5.6297498 27.585531 11.811937
-1.0903749 -26.939192 0.97164488
16.697359 -16.313591 3.3752787
23.516062 3.2157032 4.05546
-3.6050165 -16.424671 3.5366685
0.46070492 24.992542 5.8908162
5.6433268 35.770329 14.905357
0.39563107 -33.950733 3.0831745
-5.9509344 -5.1648798 1.5940627
7.894649 -0.22226612 5.303618
12.164727 -13.647709 0.6279183
10.331637 -28.372751 5.1565461
5.5553141 -39.212162 1.5143958
8.7862463 30.419287 6.7062173
-6.7286592 6.9281025 4.2715421
6.4089189 9.0400524 2.6254716
26.252438 -8.3278589 2.8997412
25.542738 4.5108757 2.6824253
-1.0549898 -16.82316 0.56748599
5.4386196 3.4911714 1.9960663
16.441805 0.4630293 4.2042227
0.83336794 23.166838 5.7337937
16.03508 -21.070465 1.3417186
2.5562747 -10.74472 6.0828543
-23.825068 14.279209 3.7883105
-12.970821 3.779748 2.6035762
-2.0989969 1.7076685 2.4670019
-16.070271 -6.5306015 3.0423818
4.7397032 25.212351 7.2861671
-1.8564711 -26.201391 2.5399683
1.8502687 -24.9226 6.7542939
-1.5471292 -10.766886 4.1054187
14.372762 0.58684784 4.2640309
5.6832466 -33.666988 7.0987387
26.452824 5.4379649 2.7859967
2.8883245 0.83916402 4.8836975
-3.5572982 0.56716269 2.2811153
8.2979021 -18.997644 6.9365358
-15.091517 -1.9474012 4.1110139
26.095737 4.7926621 2.7122967
0.12263378 1.7285032 3.0137181
-16.686916 -0.91196102 2.4229445
15.012425 5.4531898 4.0213904
-9.0824976 -6.0455232 4.227849
-9.8993502 -8.6426859 3.8332393
3.7361472 -8.4719801 0.92479289
7.8262944 11.178708 3.674474
34.289055 12.732957 3.6506467
6.2020764 -42.932888 5.1049623
25.475149 -2.6150057 4.1306014
23.185369 -11.987301 2.310219
-5.7169914 -24.718227 2.3181589
6.9060168 -18.287081 7.6752219
5.4110651 35.841507 14.472341
10.627037 -9.8665056 1.0808996
7.4287 -35.357655 6.2759438
25.800827 5.4186277 2.7875211
6.4365654 -42.159931 1.8347307
-0.37647104 -23.658541 0.58914983
-10.113815 8.1592274 3.8526673
19.258224 0.69054884 2.2703826
33.161747 9.0656729 4.2632899
8.6883459 -1.854769 4.9504013
-4.6325397 -21.399563 2.8352201
10.043013 -23.952513 6.1154971
-14.874484 -3.6950078 2.2078147
7.6480303 -23.812893 7.7624807
5.37571 -4.2692804 7.2031274
5.4589863 30.340101 11.892004
-5.7703519 -11.023737 3.9657395
17.952923 1.7953635 4.1855059
19.134827 -8.9757214 1.3641592
1.1037303 -20.728382 0.46190736
-11.80617 3.8339584 4.0758257
2.9220057 -35.579712 1.4018123
1.3645847 -36.477566 1.5292164
8.6877289 -27.147295 7.3127842
31.635777 2.9446476 4.1738882
4.8432913 33.98568 10.669289
24.914286 -6.2402973 3.7521489
4.215291 -10.994946 6.9863153
1.2515892 -15.74771 5.6769605
2.4475458 -15.504615 6.4398394
-0.12064572 -18.09236 4.6544766
35.795422 14.26747 3.9624708
-17.36232 3.5456655 4.3020849
2.4993885 28.050482 7.0601678
9.6489344 28.66954 7.108717
4.4911466 -27.340178 0.52091068
-9.6033926 -0.22757219 2.1525946
7.0201983 -3.2940364 6.653183
2.0025847 0.97576195 3.0799932
5.9419937 38.451599 16.019947
4.4302921 21.103413 5.1460094
5.3376656 -39.930111 1.597864
3.7380025 -15.621877 7.0272975
-6.2936764 6.4975443 4.2761045
-17.347254 -5.1161447 3.3889589
2.0133026 20.253054 5.1952872
6.069293 13.455188 6.2322741
1.6600378 -31.353222 1.1213686
7.5713401 -8.975275 6.7406883
-7.1548862 -0.49387839 2.1355743
9.6063604 -22.542429 0.33220381
-13.167201 7.5391636 3.0809331
18.816717 -0.54536527 4.1203737
3.5851989 -5.8014035 1.1644816
7.5984716 -27.800804 0.62272954
-13.990527 -5.7497764 2.2561643
16.045063 -12.29909 0.99741435
24.827562 -10.529049 3.2362015
-6.7062435 -17.164185 3.1336296
23.499912 -2.1568899 1.9113144
5.8996325 36.920036 15.541487
0.31760257 30.59491 7.3085904
10.601654 -0.6779651 4.3798075
8.5230055 -18.305418 0.41785532
4.2672443 -8.8413992 6.9262042
14.325653 -12.458303 4.0785031
13.142073 33.386448 7.2711763
5.8379598 10.248755 6.8541698
7.693923 -33.133446 6.6461639
15.721586 -17.233559 0.95901847
28.786793 3.4160831 2.5349791
20.66663 1.1145736 4.0979676
5.2912989 18.426392 7.7348385
31.053259 -0.51884961 3.4018948
11.80319 -24.019308 0.62689179
14.168906 -23.937225 1.1317722
8.4244242 26.06601 6.0075479
0.85541546 -29.137602 4.793839
-7.0637975 5.6638794 4.240027
-5.5368299 -23.299629 2.51545
6.566361 -28.474545 0.5985201
5.6161165 35.754757 16.148193
17.119198 -9.2010727 4.1555376
8.7668962 -13.739761 0.49499109
-16.81245 4.9265928 4.008213
5.6960993 37.143581 16.548912
17.799698 -19.324949 1.6235592
-3.1622219 -29.010729 1.9020047
5.7305756 24.721952 10.316278
3.2618082 -41.928913 1.9521525
23.472458 -4.7553773 4.0765414
22.478848 -7.2118177 1.7610834
19.526232 -12.556025 3.5397964
7.3605776 13.941367 3.7792966
-8.0159359 4.8970432 2.7935317
6.2451715 27.410631 5.6383252
-17.93004 3.7224095 4.3738055
35.439774 6.0863194 3.8991649
21.232433 1.5842248 2.3638361
18.235441 1.3550057 2.3543639
-12.99272 2.6032231 4.0211821
15.279232 -17.825167 0.90651256
2.2165701 -19.213057 6.5466671
23.954844 8.4671412 3.414475
-7.4393368 -12.864409 3.5756147
4.3766274 -1.7999092 6.4382324
14.828308 2.0453804 4.2769322
-1.4974045 2.4667985 4.3389835
2.7935266 -3.898005 5.2841473
-7.292357 -17.6399 3.0171204
13.177699 -31.82136 1.8468546
-12.41656 -5.131279 1.9160671
-19.772558 4.9968061 2.738672
1.8403292 10.777411 4.7438397
5.5633292 37.210526 15.704968
25.389132 5.2147646 2.7659779
-2.243325 -11.210368 0.90571702
-3.0141714 -4.551723 4.1735973
20.598082 -12.485527 1.7190738
-3.4261262 -8.3028526 4.0963106
4.4396501 31.327387 7.7153487
32.147373 3.4316075 3.0597506
-3.7120771 -3.7100151 4.1689253
-12.489059 -1.4868958 4.1946988
15.328879 -22.917309 2.7210455
6.2131782 -16.837194 8.0750713
8.1260929 -11.208817 6.6000843
10.77887 -0.58425361 2.1708221
-7.5640254 -0.075255282 2.1823525
6.8477526 12.121508 3.2194366
7.9572163 -45.10725 3.1993668
1.1164119 -13.564657 0.55495769
-9.1183481 0.59435743 2.2519379
-14.579731 -3.922528 3.9257221
-11.575262 -0.24272788 2.1393366
7.4455462 -33.703449 1.1478797
10.521919 33.745075 7.2548366
13.676821 -6.4555178 4.1598516
-5.113996 -7.5637331 1.3172348
-21.687817 3.4372685 3.3914785
-0.34157288 1.2594837 2.6604106
4.648911 -32.011086 7.1413131
9.8574781 -8.0528851 1.2616292
4.3389878 23.461716 5.1857281
5.9372869 29.26984 6.0338449
-15.874262 -0.66309822 4.1859035
6.890769 10.974792 3.0978479
10.318481 -14.627066 5.3964815
-5.5250821 -11.192613 1.0980713
20.191969 4.6819124 4.1737823
28.040659 9.28794 3.2699609
0.73926407 -12.067426 0.69811374
7.6935587 -1.4662384 5.6849542
35.61462 13.770016 4.0034142
-4.1398149 -12.145736 0.93364459
22.667639 -5.8052382 1.7834924
-15.305843 0.25118214 2.2420728
3.7994504 4.3618908 2.6679847
-23.512506 12.556468 3.6196194
-8.9748259 -13.711334 1.7623212
-24.176975 13.630142 4.0117044
0.60021651 -16.137852 5.2690916
18.921009 7.246428 4.0009909
18.508999 -16.938883 3.1166275
6.5598354 3.4923611 6.0057988
3.5249929 -25.213984 7.7788043
-0.33830488 -20.309168 0.52469695
8.0858412 -37.831585 1.5771275
-3.1464951 -4.9290104 1.6380855
-22.127619 7.6646514 3.0064828
12.846543 -21.05162 0.61776042
-8.2306709 -3.1715574 4.0525093
10.590446 0.81056094 4.3756843
2.4127159 -7.6841373 1.0829679
5.8464766 36.374031 14.498778
-5.7107196 -7.2359858 4.0513926
27.29636 -3.9820423 2.6268229
20.567865 -0.30546588 4.0758033
6.574739 21.947548 5.1994319
18.212687 -13.138651 3.6029425
19.268314 -19.206161 2.7674563
26.742243 -2.6460993 3.9984734
1.5997477 31.485289 6.8965988
3.8340487 3.6543174 2.5543556
-2.1299555 -18.062555 0.69508094
1.3264502 22.649149 6.238297
-22.034765 8.126893 4.4403167
-2.2651951 33.237488 7.5444603
5.7877307 21.841196 9.3755312
-9.6216297 4.5077157 2.7212603
8.6760483 11.763165 4.8729277
-14.562502 3.9899843 4.0017872
-18.355341 7.8352213 3.0541973
-2.6819613 -28.369997 2.1959398
-0.023862526 -4.8851361 1.6614145
12.117786 -21.463524 3.3116641
25.409998 -2.6333425 4.1350012
1.751038 -1.201264 4.6191964
-5.1783175 -4.7729869 4.1094346
7.1712451 -6.2897611 1.1031294
8.3823366 -3.9524083 1.7357408
12.220865 28.963923 6.5494356
8.0005379 -5.7525902 6.0777097
-8.5787373 1.2253637 2.3291788
7.0431657 12.312011 5.0763159
5.3781109 29.714935 11.260685
-9.3209457 -18.377687 2.6979241
5.9375196 37.376003 15.471533
0.73705608 1.1311324 4.377789
-24.632 12.708423 4.0204029
16.118193 -13.789054 3.7370837
7.16889 -20.831511 0.20091775
8.9925213 10.719786 4.0420828
8.6228075 14.911057 4.3001904
-3.2408268 -18.000584 0.82693762
-4.0426383 -11.253679 0.92211014
-5.6261377 5.1710696 3.3979626
14.002621 -2.1828308 1.9635519
15.147449 -0.87897217 4.2167315
27.429968 4.1824565 3.9872112
4.2132688 -26.336975 8.1527843
1.9286698 -1.9330121 4.6653452
-2.7027931 37.058544 7.8240528
4.4671097 -2.4139776 6.6283574
-0.9044258 -11.35285 0.89677894
9.0612135 -23.814249 6.8966022
2.9961314 -21.456594 0.27479631
11.813433 -12.946296 4.1442924
4.1272831 20.949682 6.1542659
2.9126124 -22.156525 7.0726418
-24.610857 10.866893 3.8218708
7.9946375 -40.898102 4.4653201
-10.917362 8.5194359 4.1827874
6.6191659 1.8525059 6.2139158
25.186787 -8.1616564 3.4938409
1.0575994 2.7883334 4.4338245
12.690314 28.634216 6.5072508
-6.7301331 -1.3305645 4.126606
13.206257 -9.4540882 1.1143165
-23.267836 9.4699745 4.4574103
-1.1214759 -2.8874185 4.2555175
0.50269151 2.9847567 4.4037828
-15.645827 3.9672368 2.6100221
2.7652328 25.445339 5.9129009
7.9533973 27.512524 6.226933
11.086084 -35.201492 2.5583692
7.3419857 -38.997128 5.5735726
-15.137555 -7.2434583 2.8311226
4.909534 11.535638 2.8976474
5.3923383 -13.196604 7.8042803
-6.2970872 3.940413 2.6876261
18.265518 4.5185361 2.7554994
0.90044707 -38.318462 1.9429426
18.508503 -7.8654938 4.2004857
15.046132 -23.361334 2.6963825
-4.4191489 5.3390083 4.307992
14.532355 -24.081055 1.2332698
-2.7083814 -23.066967 1.0339733
13.221374 -4.9690914 4.1986194
8.9996433 -37.926361 4.194037
8.1409798 -23.986998 0.3202194
5.8865557 -50.91539 2.5868883
6.7506309 -29.516071 7.6305785
15.175498 -16.863478 3.4634638
32.235699 3.4704199 4.1762271
-9.5879431 1.4386401 2.3483493
4.7920113 6.5119953 2.4435983
7.8010077 -19.600582 7.2119236
11.97497 32.45266 7.5218291
1.0830021 -28.090134 0.87190193
13.496292 -23.652554 0.94233972
10.139205 2.3223758 4.4773927
8.4483805 -10.588602 6.419775
32.748482 13.348906 3.9760783
6.3934722 -48.530804 2.4116528
